# .PCD v0.7 - Point Cloud Data file format
VERSION 0.7
FIELDS x y z
SIZE 4 4 4
TYPE F F F
COUNT 1 1 1
WIDTH 1569
HEIGHT 1
VIEWPOINT 0 0 0 1 0 0 0
POINTS 1569
DATA ascii
0.26390001 0.199 -0.01991
-0.7062 0.2229 0.17820001
-0.68480003 0.207 0.1383
-0.039159998 0.199 -0.01991
-0.41389999 0.27880001 -0.058499999
0.33559999 -0.0482 -0.01991
-0.2226 0.50330001 0.01072
-0.04713 0.3346 -0.058499999
-0.3741 0.50330001 0.074510001
-0.398 0.0156 -0.01991
0.68220001 -0.28740001 0.034630001
-0.1109 0.1512 -0.01991
0.49509999 0.41429999 -0.01991
0.60680002 -0.26350001 -0.058499999
0.1682 -0.5266 -0.058499999
0.50309998 0.2229 -0.01991
-0.56550002 0.13519999 -0.01991
0.47119999 -0.42300001 -0.058499999
-0.6293 0.1751 -0.01991
0.48710001 -0.16779999 -0.01991
-0.5176 -0.39109999 -0.058499999
-0.2624 0.1033 -0.01991
-0.32620001 -0.27149999 -0.058499999
0.3197 -0.66900003 0.1303
0.2559 -0.4549 -0.01991
0.53500003 0.27880001 -0.058499999
0.2001 -0.26350001 -0.058499999
-0.2305 0.31060001 -0.058499999
-0.7062 -0.3592 0.18610001
-0.5575 0.50330001 0.20209999
-0.7062 -0.1758 0.20209999
0.24789999 0.4677 0.2101
-0.3502 -0.48679999 -0.01991
0.61470002 -0.48679999 -0.01991
-0.54149997 -0.47080001 -0.058499999
-0.70740002 -0.6383 -0.03712
0.39140001 0.0076230001 -0.01991
0.032609999 -0.2157 -0.01991
-0.45379999 0.50379997 -0.0052370001
-0.1428 0.087370001 -0.01991
-0.69190001 -0.5187 -0.077
0.080449998 0.50330001 0.1303
-0.103 -0.02427 -0.01991
-0.68480003 0.26280001 0.066529997
0.22400001 -0.66900003 -0.01321
0.70359999 -0.55059999 0.074510001
-0.59740001 -0.1419 -0.1089
0.5589 0.063440003 -0.01991
-0.17470001 -0.0163 -0.01991
0.59079999 -0.62809998 0.082489997
-0.3581 -0.62809998 0.066540003
0.00070899999 0.50330001 0.1383
0.70359999 -0.0163 -0.02916
-0.0072610001 -0.62809998 0.042619999
-0.01523 0.38240001 -0.058499999
-0.398 0.50330001 0.042610001
-0.047139999 0.055470001 -0.01991
0.064499997 0.3346 -0.01991
-0.039159998 0.50330001 -0.0451
0.064510003 0.1432 -0.058389999
0.2 0.087389998 -0.01974
0.36750001 -0.1077 -0.2366
0.31169999 0.4677 0.074500002
-0.2066 -0.1107 -0.26010001
0.040589999 0.3425 -0.058499999
0.28780001 0.50349998 0.1383
-0.54949999 0.30270001 -0.058499999
0.27180001 0.4677 0.1542
-0.1189 0.27079999 -0.01991
-0.38209999 0.4677 0.1223
-0.38209999 -0.1419 -0.1727
0.6785 -0.66900003 -0.037129998
0.48710001 -0.1419 -0.1567
-0.1428 -0.66900003 0.1144
0.1044 0.1751 -0.01991
0.70359999 0.24680001 0.090460002
0.02462 0.4677 0.19410001
-0.398 -0.54259998 -0.01991
-0.43790001 -0.1419 -0.1089
0.51109999 -0.27149999 -0.01991
-0.4937 -0.1419 -0.1647
0.3994 0.4677 0.1223
-0.7062 -0.3114 0.17020001
-0.3502 -0.15989999 -0.019920001
-0.2146 -0.29539999 -0.058499999
0.24789999 0.3585 -0.01991
0.056529999 0.41429999 -0.01991
-0.7062 -0.3831 0.1383
-0.69309998 -0.66900003 0.19410001
0.51899999 -0.43889999 -0.01991
-0.4937 0.23890001 -0.01991
-0.68480003 -0.54259998 0.1383
0.31169999 -0.3353 -0.01991
0.67049998 0.50330001 0.1224
0.27180001 -0.27950001 -0.01991
-0.56550002 -0.0163 -0.01991
-0.56550002 -0.41499999 -0.058499999
-0.071060002 -0.1201 -0.2617
0.5589 0.50330001 -0.037129998
-0.4777 0.062969998 -0.071589999
0.008684 -0.36719999 -0.01991
0.70359999 -0.1279 -0.0052359998
0.70359999 -0.1917 -0.037129998
-0.28639999 -0.5984 -0.058499999
0.68220001 0.31060001 0.05855
-0.7062 0.1591 0.074510001
-0.079020001 -0.62809998 0.050549999
0.064510003 -0.04025 -0.01925
0.048560001 -0.62800002 0.074469998
-0.68440002 -0.2236 0.1143
-0.68480003 -0.112 0.2101
-0.7062 0.39039999 0.09843
0.088430002 -0.2396 -0.01991
0.66949999 -0.2449 -0.1362
-0.3741 0.4382 -0.058499999
0.62269998 -0.2157 -0.058499999
0.49509999 0.4677 0.058589999
0.024630001 -0.57450002 -0.01991
0.63870001 0.50330001 0.090460002
0.67049998 0.50330001 0.026660001
0.685 -0.0163 -0.069190003
-0.057769999 0.15009999 -0.061889999
0.2001 0.41429999 -0.01991
-0.3581 0.24690001 -0.01991
-0.29969999 0.46799999 -0.072120003
-0.13410001 0.60759997 0.2392
0.64490002 -0.47350001 -0.061999999
-0.089670002 -0.1345 -0.22920001
-0.43790001 -0.1512 -0.01754
-0.3475 -0.66670001 -0.042089999
0.4393 -0.64630002 0.1918
-0.58890003 0.55239999 0.2367
-0.704 -0.62809998 -0.2325
0.1462 -0.2209 -0.062880002
0.6498 -0.35120001 -0.19660001
0.3682 0.08862 -0.069499999
0.68910003 0.46799999 -0.072109997
0.34310001 -0.51999998 -0.062040001
0.2001 -0.6063 -0.019920001
-0.50169998 -0.066019997 -0.017550001
0.68220001 -0.55849999 0.1303
-0.3581 -0.1837 -0.058499999
-0.56559998 0.65200001 0.095990002
-0.69999999 0.0076219998 -0.056930002
-0.18269999 0.4677 0.20209999
0.50700003 0.29460001 -0.20389999
0.64209998 0.29730001 -0.064060003
-0.57239997 0.74119997 0.1195
0.4233 0.4677 0.2334
0.69999999 -0.5905 -0.06921
0.1682 0.50330001 -0.060860001
-0.5575 -0.01081 -0.082730003
-0.64840001 -0.02234 -0.22229999
-0.1109 -0.39109999 -0.058499999
0.28780001 -0.01081 -0.082730003
-0.69239998 0.48640001 -0.07598
0.70719999 -0.65429997 -0.069049999
0.64899999 -0.59039998 -0.092940003
0.24789999 -0.66890001 0.18529999
0.64819998 -0.66890001 -0.1009
0.28780001 -0.16779999 -0.01991
0.4154 0.4779 -0.074969999
0.5988 0.13950001 -0.093850002
0.63679999 0.37970001 -0.060860001
0.68220001 -0.4788 0.21799999
0.66720003 -0.34810001 -0.1561
0.22400001 0.04713 -0.07288
0.65460002 0.4677 0.2101
0.70359999 0.45410001 0.058559999
0.1283 0.1432 -0.058389999
0.2798 0.4384 0.019029999
0.38350001 -0.1417 -0.2184
0.70359999 -0.02428 0.20209999
-0.6566 -0.29539999 -0.22849999
-0.46180001 0.53860003 0.2377
0.6074 0.077639997 -0.070390001
0.55089998 -0.62809998 0.01072
-0.5424 0.56999999 0.1119
-0.2624 -0.1314 -0.2366
-0.42989999 -0.056109998 -0.019920001
-0.64380002 -0.6613 -0.2335
-0.69190001 -0.35890001 -0.21170001
0.016650001 0.062969998 -0.071589999
-0.6771 0.454 -0.058460001
0.68559998 -0.5266 -0.092940003
-0.65880001 -0.2472 -0.24609999
0.36219999 -0.6232 -0.01263
0.080449998 -0.097240001 -0.2246
0.64709997 -0.60710001 0.034650002
-0.0083060004 -0.653 -0.077229999
-0.53359997 0.1367 -0.1077
-0.25979999 0.50050002 0.2418
-0.66909999 -0.4129 -0.073349997
-0.071060002 -0.04417 -0.2094
-0.50160003 0.50330001 0.1464
0.70359999 0.1432 0.21799999
-0.18269999 0.1432 -0.058389999
-0.3163 -0.04659 -0.2106
-0.28639999 0.477 0.24089999
-0.15880001 0.48339999 0.2421
-0.34209999 0.53380001 0.23199999
-0.59469998 -0.6232 -0.01263
0.1682 0.53390002 0.229
-0.53619999 -0.1347 -0.22920001
0.080449998 -0.62779999 0.1781
0.60680002 -0.1419 -0.1248
-0.2545 -0.66900003 -0.02118
0.040589999 -0.4948 -0.058499999
-0.094980001 -0.4948 -0.01991
0.1442 0.50330001 0.0027409999
-0.6293 0.5036 -0.03712
0.67790002 0.2947 -0.067659996
-0.41389999 -0.62809998 0.1064
0.36750001 0.50379997 0.1622
-0.19859999 -0.60640001 -0.058499999
-0.45379999 -0.27950001 -0.01991
-0.40599999 0.37439999 -0.058499999
0.24789999 -0.27149999 -0.058499999
0.3994 -0.1917 -0.01991
-0.40599999 0.50330001 0.1303
-0.19859999 -0.36719999 -0.058499999
0.55089998 0.207 -0.058499999
-0.32620001 -0.4549 -0.058499999
-0.7062 0.087360002 0.082479998
0.62269998 -0.145 -0.01269
-0.43790001 -0.66900003 0.050579999
0.68220001 0.40630001 0.042610001
0.056529999 0.50330001 -0.02916
0.28780001 0.50330001 -0.01321
0.68220001 -0.46290001 0.074500002
0.57489997 0.47150001 0.2404
0.0080209998 -0.2318 -0.059610002
0.008688 0.23890001 -0.058499999
0.54299998 -0.000351 -0.01991
-0.047139999 -0.57450002 -0.01991
0.54299998 -0.66900003 0.058559999
0.70359999 -0.3432 0.042610001
-0.05511 0.39039999 -0.01991
0.1761 -0.66900003 0.09843
-0.07903 -0.32730001 -0.01991
0.064499997 -0.28740001 -0.01991
0.080449998 -0.50269997 -0.01991
-0.02321 0.23890001 -0.01991
0.1921 -0.62809998 0.02667
0.61320001 0.67729998 0.099430002
0.45519999 0.28670001 -0.019409999
-0.66100001 -0.2157 -0.0581
-0.44580001 -0.3193 -0.058499999
0.54299998 0.3425 -0.019409999
-0.3581 -0.3752 -0.01925
-0.60530001 -0.4549 -0.01991
0.50309998 0.50330001 0.1622
-0.53359997 -0.1419 -0.1089
0.3197 -0.1419 -0.1009
-0.29429999 -0.3831 -0.01991
-0.2385 -0.62809998 0.1224
-0.40599999 0.50330001 0.17820001
0.1522 0.27880001 -0.058499999
-0.58939999 -0.46290001 -0.058499999
-0.4777 -0.62809998 0.1064
0.0964 0.1193 -0.01991
0.49509999 0.13519999 -0.01991
0.21600001 -0.3353 -0.01991
-0.17470001 -0.4948 -0.01991
-0.48570001 -0.3831 -0.01991
-0.5575 0.28670001 -0.01991
-0.1109 -0.59039998 -0.058499999
0.59079999 0.4677 0.1383
-0.48570001 -0.66900003 0.1463
-0.27039999 -0.55059999 -0.01991
0.63059998 -0.6063 -0.019929999
-0.44580001 0.42230001 -0.01991
0.088430002 0.047490001 -0.01991
0.37549999 0.04713 -0.07288
-0.58139998 0.04713 -0.07288
0.47920001 -0.075630002 -0.2184
-0.1349 0.42230001 -0.01991
-0.48570001 -0.58249998 -0.01991
-0.17470001 -0.62809998 0.1622
-0.52490002 0.48640001 -0.07598
-0.58939999 -0.6462 -0.044939999
0.65460002 -0.16779999 -0.01991
0.68199998 -0.3662 -0.2173
-0.3741 0.46309999 -0.01266
-0.65609998 -0.32730001 -0.19660001
-0.71079999 0.4932 0.1542
0.1682 -0.66890001 0.18529999
-0.40599999 -0.1074 -0.2367
0.3197 -0.042229999 -0.1807
0.48710001 0.4677 0.0026420001
-0.26910001 0.5636 0.23119999
0.067160003 -0.072889999 -0.01264
-0.33019999 -0.037470002 -0.119
-0.1269 0.1032 -0.068329997
0.1921 -0.056109998 -0.019920001
0.1283 -0.065679997 -0.01754
0.53500003 -0.63840002 0.1918
-0.4698 0.4677 0.2334
0.33629999 0.4562 0.01881
-0.44589999 -0.088059999 -0.22239999
-0.68470001 -0.2476 0.23199999
-0.05511 -0.1419 -0.19660001
-0.4698 0.02335 -0.074809998
0.68650001 0.5018 -0.072360002
-0.2392 -0.63230002 0.19069999
-0.4729 0.2235 -0.081799999
0.38350001 -0.0053229998 -0.080150001
0.43130001 0.1367 -0.1077
0.49509999 0.1367 -0.1077
0.68220001 -0.3193 0.2101
-0.64120001 -0.65429997 0.2014
0.68409997 -0.39109999 -0.075139999
-0.33489999 -0.2318 -0.059610002
0.024630001 0.47170001 -0.07384
-0.42989999 0.207 -0.058499999
-0.7062 -0.44690001 0.17820001
-0.7062 0.36649999 0.2101
-0.7062 -0.39910001 0.050579999
-0.7062 0.39840001 0.058559999
-0.68480003 -0.55849999 0.18610001
-0.66119999 -0.59829998 -0.1726
0.57489997 -0.66170001 0.1919
0.032590002 -0.04222 -0.19660001
-0.65319997 -0.15989999 -0.058499999
0.70359999 -0.41499999 0.034639999
-0.7062 0.44620001 0.082479998
0.68220001 0.047490001 0.19410001
-0.071050003 -0.1837 -0.058499999
0.70359999 0.055470001 0.0027389999
0.70359999 0.30270001 0.002755
0.70359999 0.1033 0.1383
0.70359999 -0.4549 0.1144
-0.7062 0.27079999 0.1064
0.70359999 0.1671 0.17020001
-0.7062 0.3186 0.1622
0.68220001 0.3346 0.17820001
-0.7062 0.44620001 0.20209999
-0.7062 -0.5187 0.1463
-0.7062 -0.1997 0.042610001
0.68220001 0.2229 0.082479998
-0.7062 0.039519999 0.19410001
0.68220001 -0.096050002 0.1542
-0.7062 -0.15979999 0.050579999
-0.68480003 -0.02428 0.1303
0.6627 -0.1455 -0.1727
0.68220001 -0.55059999 0.18610001
0.040569998 0.5977 0.2321
-0.17470001 0.13160001 -0.099969998
-0.031199999 0.46309999 -0.01266
-0.1189 0.4677 0.0026420001
0.51899999 -0.15090001 -0.01756
-0.69980001 0.50319999 -0.01321
-0.047139999 -0.1077 -0.2366
-0.7062 -0.1838 0.1224
-0.7062 -0.40700001 0.090449996
0.1283 -0.62779999 -0.0050730002
-0.4007 0.1365 -0.080530003
-0.35749999 0.49340001 -0.07649
0.6067 0.4677 0.08247
0.24789999 -0.1419 -0.1169
-0.079039998 -0.1419 -0.1169
0.072480001 -0.1419 -0.1009
-0.1349 -0.1837 -0.019579999
-0.44580001 0.50330001 0.026660001
-0.61330003 0.27079999 -0.01991
-0.38999999 0.39039999 -0.01991
0.38350001 0.39039999 -0.058499999
0.47119999 -0.25549999 -0.01991
-0.414 -0.1838 -0.01991
0.0964 -0.32730001 -0.058499999
0.208 0.37439999 -0.058499999
-0.33419999 0.50330001 0.1064
0.1203 -0.37509999 -0.01991
-0.45379999 0.36649999 -0.058499999
-0.3741 -0.30340001 -0.01991
0.3994 -0.3592 -0.01991
0.2559 0.1671 -0.01991
0.56690001 -0.62809998 0.1383
0.0964 0.38240001 -0.01991
-0.1349 -0.29539999 -0.01991
0.53500003 -0.1419 -0.1567
-0.31029999 0.50330001 0.17820001
-0.1189 -0.3432 -0.058499999
0.59079999 0.50330001 0.19410001
-0.2545 -0.39910001 -0.058499999
0.4233 0.50330001 0.01072
0.2559 -0.1419 -0.1886
-0.68480003 0.1033 0.1463
-0.68480003 -0.16779999 0.1622
-0.1189 0.215 -0.01991
0.1522 0.1751 -0.01991
0.048549999 -0.1419 -0.1567
0.52700001 0.1432 -0.01991
0.3436 -0.66900003 0.17820001
0.68220001 0.191 0.20209999
0.024630001 0.191 -0.01991
0.016650001 -0.66900003 0.1064
-0.2784 -0.3353 -0.058499999
-0.42989999 0.27869999 -0.01991
0.35159999 0.079389997 -0.01991
-0.7062 -0.39109999 0.2101
-0.398 0.3585 -0.01991
-0.48570001 -0.2475 -0.058499999
0.50309998 0.3425 -0.058499999
-0.32620001 -0.39109999 -0.01991
-0.5575 -0.5984 -0.01991
0.31169999 0.13519999 -0.01991
0.54299998 -0.1419 -0.1886
-0.54159999 0.4677 0.1223
0.2001 -0.1917 -0.01991
-0.19859999 -0.3353 -0.01991
0.1363 -0.56650001 -0.01991
0.4393 -0.66900003 0.1144
-0.45379999 -0.66900003 0.1303
0.1522 0.39039999 -0.01991
0.2001 0.3346 -0.01991
0.68220001 0.39039999 0.1622
-0.1428 -0.41499999 -0.058499999
0.48710001 -0.4788 -0.01991
0.32769999 0.4303 -0.01991
0.31169999 -0.26350001 -0.01991
-0.1508 0.26280001 -0.058499999
-0.27039999 -0.4788 -0.01991
0.24789999 -0.41499999 -0.058499999
-0.16670001 0.3186 -0.058499999
-0.61330003 -0.5266 -0.058499999
-0.64520001 0.23890001 -0.01991
-0.62129998 -0.26350001 -0.058499999
-0.57340002 -0.35120001 -0.058499999
-0.50169998 -0.47080001 -0.058499999
0.1442 0.03156 -0.01925
-0.1189 0.0076230001 -0.01991
-0.0072670002 -0.1419 -0.20460001
-0.6613 0.063429996 -0.068329997
0.35159999 -0.66900003 0.082479998
-0.46180001 0.50330001 -0.0451
0.040569998 0.4677 0.1223
-0.28639999 -0.66900003 -0.02916
-0.64520001 -0.66900003 0.082479998
-0.094980001 -0.53460002 -0.058499999
-0.64520001 -0.66900003 0.01071
0.008684 0.50330001 0.17020001
0.008684 0.071419999 -0.01991
0.008688 0.44620001 -0.058499999
-0.0072650001 -0.47080001 -0.01991
0.70359999 0.44620001 0.09843
0.2001 0.50330001 0.018689999
-0.32620001 -0.04022 -0.01991
-0.64520001 0.055470001 -0.01991
0.54299998 0.50330001 0.034639999
0.032609999 -0.41499999 -0.01991
-0.16670001 -0.62809998 0.090460002
-0.7062 0.4382 0.026660001
-0.4937 -0.66900003 0.074510001
0.072480001 -0.59039998 -0.01991
-0.60530001 -0.0163 -0.01991
-0.68480003 -0.5187 0.01071
0.4632 0.50330001 -0.01321
-0.7062 -0.1758 -0.02916
-0.4219 0.50330001 0.090460002
0.70359999 -0.3831 0.050579999
-0.1189 -0.2157 -0.01991
-0.063079998 0.50330001 0.18610001
0.24789999 -0.62809998 0.098439999
-0.063079998 -0.41499999 -0.01991
-0.094980001 0.50330001 -0.037129998
-0.4296 -0.044210002 -0.2094
0.6498 -0.55059999 -0.084990002
0.23199999 0.4657 -0.06696
0.70359999 0.01559 0.034630001
-0.044489998 0.46799999 -0.072120003
0.70359999 -0.02428 0.034639999
0.064499997 0.50330001 0.058559999
0.33559999 0.199 -0.01991
0.704 0.40630001 -0.045109998
0.65450001 -0.3831 -0.05813
-0.5176 -0.62779999 0.1781
0.032609999 0.50330001 0.1303
-0.68480003 0.3585 0.17820001
-0.1269 -0.30340001 -0.058499999
0.70359999 0.35049999 0.1224
-0.34220001 0.1831 -0.01991
0.47920001 0.4677 0.1144
0.39140001 -0.66900003 0.058559999
-0.17470001 0.50330001 0.17820001
0.1682 0.24690001 -0.058499999
-0.45379999 -0.1419 -0.1886
0.61470002 -0.1419 -0.1567
-0.60530001 -0.62809998 0.1144
-0.5176 0.4677 0.1622
-0.103 0.071419999 -0.01991
0.2559 0.191 -0.058499999
0.68650001 -0.66900003 0.18610001
-0.6293 0.3346 -0.01991
-0.6372 -0.25549999 -0.01991
-0.54149997 -0.3432 -0.01991
-0.7062 -0.2236 0.19410001
-0.58939999 -0.55059999 -0.058499999
-0.7062 0.1512 0.226
-0.32620001 0.36649999 -0.01991
0.56690001 0.50330001 0.1543
-0.2624 -0.58249998 -0.01991
-0.4219 -0.28740001 -0.01991
-0.38999999 0.25479999 -0.01991
0.00070899999 -0.39910001 -0.01991
0.35159999 -0.64020002 -0.04459
0.70359999 -0.3592 -0.01321
-0.66909999 0.27869999 -0.067790002
0.1123 0.50330001 0.042610001
0.040589999 -0.16779999 -0.058499999
0.1363 -0.62809998 0.074510001
-0.54149997 -0.66900003 0.018689999
-0.648 -0.6142 0.01936
-0.66900003 0.37439999 -0.019619999
-0.2465 -0.09589 0.0021170001
-0.071070001 0.4677 0.090439998
0.3276 0.54170001 0.22920001
0.33660001 -0.034630001 -0.1169
0.70740002 0.4698 0.0027399999
-0.43790001 0.50330001 0.18610001
-0.1348 0.3585 -0.058499999
0.1442 0.3585 -0.058499999
-0.58939999 0.50330001 0.1064
0.63859999 -0.1419 -0.077
0.088430002 -0.5266 -0.058499999
0.0964 -0.04205 -0.19660001
0.38350001 -0.59039998 -0.058499999
-0.52560002 0.0392 -0.073519997
-0.6372 0.4461 -0.019920001
-0.19859999 -0.59039998 -0.01991
0.38350001 -0.57450002 -0.01991
0.6498 -0.46959999 -0.1705
0.68220001 0.09533 0.026660001
0.67690003 -0.57230002 0.074510001
0.68669999 -0.1372 -0.22050001
0.088430002 0.454 -0.058460001
-0.2146 -0.1512 -0.01754
0.61470002 -0.1758 -0.01991
-0.69340003 -0.1357 -0.1594
-0.6821 -0.29539999 -0.0071129999
-0.023220001 -0.2089 -0.063490003
0.70359999 0.063440003 -0.045079999
-0.67210001 -0.61070001 0.2194
0.64899999 -0.59039998 -0.1408
-0.60530001 -0.04823 -0.21089999
0.2079 -0.041839998 -0.1726
-0.53890002 0.5104 0.2344
-0.071070001 -0.088059999 -0.22239999
0.36739999 -0.041850001 -0.1726
0.66890001 -0.32730001 -0.075110003
-0.1508 -0.03396 -0.093110003
0.40470001 0.1182 -0.069969997
0.056529999 -0.1419 -0.21250001
-0.2146 -0.0053229998 -0.080150001
0.2001 7.2000003e-05 -0.078000002
0.68220001 -0.42300001 0.2101
-0.70740002 -0.6383 -0.1567
-0.54949999 0.1111 -0.067950003
-0.68760002 -0.41499999 0.23649999
0.048549999 -0.1074 -0.2516
-0.68440002 -0.056189999 0.066500001
0.3915 -0.2475 -0.058499999
-0.61330003 -0.12549999 0.003851
-0.40900001 -0.45719999 -0.061859999
0.47920001 0.51810002 0.23199999
0.1123 -0.1074 -0.2516
-0.2385 -0.1311 0.0026740001
-0.64200002 -0.036219999 -0.1328
0.59079999 0.4677 0.0026420001
-0.5176 -0.1152 -0.26159999
0.24789999 -0.1362 0.002294
-0.67559999 -0.1759 -0.19509999
-0.02282 0.62629998 0.23559999
-0.42989999 -0.62809998 0.01871
0.24789999 0.4677 0.0026420001
-0.4698 -0.62809998 0.17020001
0.70359999 -0.3432 0.082479998
-0.6821 0.087360002 -0.0071129999
0.6717 -0.55849999 -0.01756
0.68220001 -0.05618 0.018680001
0.70359999 0.191 0.050579999
-0.1349 -0.078510001 -0.2217
0.5747 -0.068719998 -0.20990001
-0.7062 -0.43889999 0.018689999
0.70359999 -0.5187 0.034639999
0.68220001 0.42230001 0.18610001
-0.68480003 0.40630001 0.17020001
-0.7062 -0.4788 0.1542
-0.7062 0.207 0.082479998
-0.7062 0.37439999 0.1383
0.68220001 0.41429999 0.01071
0.68220001 0.25479999 0.05855
0.58020002 -0.078120001 0.00028499999
-0.063100003 0.56580001 0.229
-0.047150001 0.1367 -0.1077
-0.28639999 -0.1074 -0.2367
0.63599998 -0.109 0.0026090001
-0.38999999 -0.063419998 -0.2052
-0.071060002 -0.03111 -0.087339997
-0.7044 0.087360002 0.2352
0.26390001 0.54189998 0.2321
-0.039159998 -0.62809998 0.1224
0.5334 0.2263 -0.1821
-0.68480003 0.2947 0.082479998
-0.38209999 -0.056109998 -0.019920001
-0.2146 0.49329999 0.2439
-0.54949999 -0.50269997 -0.01991
-0.31830001 -0.1311 0.003001
0.70410001 -0.2157 0.1143
0.70020002 0.3346 0.23630001
0.31169999 0.047490001 -0.01991
-0.414 -0.2236 -0.01991
0.008688 0.3585 -0.058499999
0.2559 0.28670001 -0.01991
0.23199999 0.0156 -0.01991
0.31169999 0.4716 0.2404
0.37549999 0.4677 0.20209999
-0.49700001 -0.05116 -0.2062
-0.7062 -0.29539999 0.20209999
0.3436 -0.27149999 -0.058499999
0.3994 -0.4788 -0.01991
-0.47780001 0.456 -0.017550001
0.68220001 -0.47080001 0.17820001
-0.2465 0.36649999 -0.058499999
0.33559999 -0.47080001 -0.01991
0.35960001 -0.3193 -0.01991
0.70359999 -0.13590001 0.17020001
0.58279997 -0.1997 -0.01991
0.1602 0.50330001 0.17820001
-0.2146 -0.2157 -0.01991
0.6717 0.4657 0.1542
-0.7062 0.1751 0.018689999
0.68220001 -0.1838 0.1383
-0.094980001 -0.66900003 0.1622
0.47119999 0.207 -0.01991
0.70359999 0.031539999 0.1383
0.21600001 -0.27149999 -0.01991
-0.7062 0.191 0.19410001
-0.19069999 -0.66900003 0.0027379999
-0.19859999 0.50330001 0.1224
0.2419 -0.2209 -0.062880002
-0.53359997 -0.66900003 0.082479998
-0.05511 0.50330001 -0.01321
0.016659999 0.1033 -0.01991
-0.7062 -0.0083299996 0.20209999
-0.3581 -0.62809998 0.098439999
0.68220001 -0.05618 0.082479998
0.1522 0.50330001 0.1383
0.4154 0.50330001 0.09843
0.4632 -0.64020002 -0.04459
0.52700001 -0.62809998 0.050590001
-0.48570001 0.32659999 -0.058499999
-0.54159999 0.4677 0.20209999
0.51899999 -0.50269997 -0.058499999
0.1682 -0.55849999 -0.058499999
-0.4937 0.27079999 -0.01991
-0.31830001 0.30270001 -0.01991
0.3197 -0.3193 -0.058499999
0.26390001 0.50330001 0.066540003
-0.7062 -0.58249998 0.2101
0.70359999 0.12720001 -0.0052359998
-0.50169998 0.46669999 0.05015
-0.1349 -0.36719999 -0.01991
-0.28639999 -0.1419 -0.069190003
-0.4777 -0.1419 -0.1328
-0.48570001 -0.3432 -0.058499999
-0.17470001 -0.36719999 -0.01991
-0.54949999 -0.2316 -0.058499999
-0.4777 -0.3353 -0.01991
-0.36610001 0.4677 0.1542
-0.30230001 0.007613 -0.075709999
-0.398 0.31060001 -0.058499999
-0.50959998 -0.2236 -0.01991
0.60680002 0.1671 -0.01991
0.4154 -0.66900003 0.090460002
0.35159999 0.24690001 -0.01991
0.32769999 -0.62809998 0.0027610001
-0.53359997 -0.000351 -0.01991
0.59079999 -0.55059999 -0.01991
0.2559 -0.3432 -0.058499999
0.43130001 -0.25549999 -0.01991
-0.68480003 -0.54530001 0.23559999
-0.4219 -0.56650001 -0.01991
-0.68769997 0.2947 0.2362
-0.70679998 0.46180001 -0.037129998
-0.039159998 -0.025210001 -0.084140003
0.44729999 -0.02427 -0.01991
0.072460003 0.4677 0.1223
-0.063089997 -0.66900003 0.1303
0.685 -0.048190001 -0.069179997
0.22400001 0.50330001 0.082479998
0.70359999 0.1033 0.1064
0.048549999 -0.1419 -0.077
-0.05511 -0.1257 0.0038129999
-0.03119 -0.26350001 -0.01991
-0.64310002 -0.66170001 -0.077019997
-0.5575 0.50330001 0.074490003
-0.3502 -0.66900003 0.09843
-0.023220001 -0.40700001 -0.059379999
0.1123 -0.1419 -0.1647
-0.69190001 -0.48679999 -0.1248
-0.70630002 -0.63029999 -0.06904
-0.66909999 0.50330001 0.2101
-0.67739999 -0.35069999 -0.13770001
-0.1428 0.50330001 0.1543
0.70560002 -0.64099997 0.2357
0.56089997 0.55930001 0.1093
0.43130001 0.50569999 0.219
0.52700001 0.4393 0.023010001
0.25920001 -0.62800002 -0.056510001
-0.16339999 -0.62800002 -0.056510001
0.1123 0.56580001 0.229
-0.6638 -0.1274 -0.2615
-0.68480003 0.1432 0.0027989999
0.167 -0.040309999 -0.1568
0.68650001 -0.66900003 -0.1169
-0.56330001 0.61949998 0.1114
0.000757 -0.63859999 -0.04713
0.52670002 -0.042059999 -0.1886
-0.66900003 0.4677 0.002655
-0.53039998 0.6383 0.106
-0.15880001 0.5018 -0.072389998
0.27180001 -0.1419 -0.084980004
0.70550001 -0.66670001 0.074500002
-0.1743 -0.45609999 -0.063490003
0.68220001 -0.3353 0.17020001
-0.68440002 -0.14390001 0.098399997
-0.047139999 -0.66900003 -0.02916
0.37549999 0.1348 -0.068389997
0.66890001 -0.2236 -0.1017
0.097070001 -0.63260001 -0.05164
-0.3502 -0.62809998 0.17020001
-0.57349998 0.4677 -0.005109
-0.68510002 0.50330001 0.074510001
0.68379998 0.079379998 0.2352
-0.69440001 0.40369999 -0.06103
-0.039170001 0.52590001 0.229
0.29840001 0.13500001 -0.075240001
0.64270002 -0.64630002 -0.061129998
0.66259998 0.1432 -0.068170004
-0.50169998 -0.62809998 0.0027610001
-0.53039998 0.51819998 0.1175
0.70359999 -0.4948 -0.037129998
0.37549999 -0.5248 -0.061000001
-0.25979999 0.13500001 -0.075240001
0.68220001 -0.3114 0.09843
-0.68480003 -0.27950001 0.1144
-0.7062 0.3425 0.042610001
-0.0072610001 -0.1318 -0.2445
-0.7062 -0.2396 0.018689999
0.51700002 0.36559999 -0.20389999
0.68220001 -0.25549999 0.17020001
0.70359999 -0.12 0.2101
0.70359999 -0.48679999 0.1303
-0.7062 0.047490001 0.034630001
0.01133 0.13330001 -0.1053
-0.03167 -0.042199999 -0.2042
-0.4919 0.51059997 0.08529
-0.7062 0.31060001 0.09843
0.70359999 0.1113 0.066529997
0.68220001 0.39840001 0.090449996
-0.63779998 -0.6257 0.074510001
-0.3448 0.49739999 0.24349999
0.20819999 0.16689999 -0.079549998
0.059190001 -0.66670001 -0.042089999
0.38350001 -0.66900003 -0.01321
0.271 -0.48050001 -0.061829999
0.50309998 -0.66890001 -0.036830001
-0.086999997 -0.62809998 0.01072
0.47189999 0.083120003 -0.069940001
0.51910001 0.65600002 0.1164
0.58279997 0.44620001 -0.058499999
0.33559999 0.1434 -0.05844
0.52969998 0.13330001 -0.1053
0.25060001 0.51020002 0.2341
-0.69150001 -0.23989999 -0.199
0.2154 -0.62779999 0.18440001
-0.6426 0.31060001 -0.062509999
0.1682 0.58179998 0.229
0.1602 0.18269999 -0.059560001
0.51109999 -0.66900003 0.1622
0.046569999 -0.63510001 -0.04713
-0.1269 0.4677 0.2101
0.70370001 0.30270001 -0.051589999
-0.68110001 -0.38299999 -0.12710001
-0.5176 -0.0252 -0.084129997
0.68220001 -0.5187 0.21799999
0.66670001 -0.1917 -0.067850001
-0.031199999 0.1771 -0.1209
-0.14820001 0.15809999 -0.08777
0.68779999 0.207 0.2359
0.69 -0.114 -0.1567
0.66670001 -0.2396 -0.067850001
-0.071070001 0.46520001 0.0114
0.43130001 -0.58249998 -0.058499999
0.685 -0.39899999 -0.1964
0.1655 -0.1096 0.0036490001
0.016659999 0.51810002 0.23199999
-0.36610001 -0.081940003 -0.22229999
-0.2465 -0.66170001 0.1919
-0.047150001 0.46079999 0.035719998
0.67269999 -0.3592 -0.1244
0.6573 -0.53200001 -0.1427
-0.1109 -0.1074 -0.2367
-0.56550002 0.50349998 -0.060899999
-0.69019997 -0.072120003 -0.067699999
0.52389997 -0.036249999 -0.1196
-0.2226 0.50190002 -0.071929999
0.5323 -0.1452 -0.063019998
0.68220001 -0.55849999 0.21799999
-0.31830001 -0.09589 0.002116
0.3197 0.4779 -0.074969999
-0.68339998 -0.02059 -0.189
0.71219999 0.4932 0.1383
-0.68309999 -0.27950001 -0.075130001
0.65179998 -0.2366 -0.24690001
0.70359999 -0.1917 0.21799999
0.35420001 -0.13789999 -0.22390001
0.1283 -0.1419 -0.069190003
-0.69300002 -0.58270001 -0.1724
-0.6821 0.41429999 -0.0071129999
-0.67320001 -0.1869 -0.076099999
-0.2291 -0.54460001 0.039000001
-0.2631 -0.057410002 -0.20379999
0.63849998 -0.54259998 -0.058449998
-0.398 -0.1145 0.0040560002
0.67830002 0.2229 -0.01265
-0.68169999 0.2149 -0.0071430001
0.3197 -0.1076 -0.25150001
-0.1269 -0.044190001 -0.2094
-0.67869997 -0.28600001 -0.1068
0.6839 -0.26530001 -0.19230001
-0.52560002 0.53689998 0.2314
-0.7062 -0.0801 0.2101
0.68470001 0.01572 -0.068099998
0.65249997 -0.42590001 -0.1981
0.40740001 -0.64020002 -0.044599999
0.1602 -0.64020002 -0.04459
-0.44580001 -0.1314 -0.2366
0.41 -0.46970001 -0.063359998
-0.2066 -0.2041 -0.062909998
-0.2226 -0.1314 -0.2366
0.53500003 0.1374 -0.062380001
0.55089998 -0.081890002 0.0030749999
-0.61330003 -0.09589 0.002116
0.1203 -0.1758 -0.01991
0.051210001 0.50050002 0.2418
0.67830002 0.055459999 -0.01265
0.36750001 0.4677 0.058589999
0.4632 -0.1362 0.002294
0.66259998 -0.62599999 -0.21250001
-0.1089 -0.2209 -0.062880002
0.59039998 0.50459999 0.075230002
0.61470002 0.50599998 0.219
0.67830002 -0.0083290003 -0.01265
-0.4219 0.4677 -0.005109
0.63679999 0.2362 -0.06103
-0.1137 -0.45699999 -0.060589999
0.23989999 0.46669999 0.05015
0.2638 -0.51880002 -0.05847
0.7044 -0.61699998 -0.1248
-0.16680001 -0.66900003 -0.02916
0.3197 -0.20379999 -0.062509999
0.66250002 0.4677 -0.005109
0.64609998 -0.61489999 -0.077
0.48879999 0.1917 -0.1006
0.62339997 0.5808 0.09003
0.37529999 -0.42300001 -0.058449998
-0.6821 -0.4788 -0.0071129999
-0.65469998 -0.57480001 0.066529997
0.61970001 0.74650002 0.1001
0.1125 -0.034049999 -0.101
0.31810001 -0.53530002 -0.060509998
-0.69190001 -0.26350001 -0.22050001
-0.66119999 0.4648 0.04228
0.1283 0.46520001 0.0114
-0.18269999 0.4677 -0.005109
-0.65079999 -0.5772 -0.095619999
-0.7062 -0.47080001 0.226
-0.3475 -0.54720002 -0.062710002
0.17550001 -0.05773 -0.20379999
-0.40599999 -0.27149999 -0.06346
0.2034 -0.47420001 -0.06205
-0.42989999 0.46079999 0.035719998
-0.1189 0.18269999 -0.059560001
-0.072860003 0.61629999 0.23989999
-0.70499998 -0.66670001 0.037300002
0.43130001 0.46669999 0.05015
-0.4777 0.17479999 -0.058710001
0.27180001 0.13789999 -0.086280003
-0.31830001 -0.64630002 -0.044939999
0.0493 -0.034249999 -0.1161
0.1881 0.1637 -0.1179
-0.1189 0.54189998 0.2321
-0.4804 -0.1345 -0.22920001
-0.6904 -0.30160001 -0.23280001
-0.27039999 -0.088059999 -0.22239999
0.50800002 0.74690002 0.1182
0.70740002 -0.6383 0.18610001
-0.68440002 -0.48679999 0.1781
0.22400001 0.1193 -0.01991
-0.52560002 0.1591 -0.058499999
-0.2305 -0.4549 -0.058499999
0.2559 0.24690001 -0.058499999
0.28780001 -0.58249998 -0.058499999
-0.57340002 -0.62809998 0.1303
-0.60530001 -0.2396 -0.01991
0.6498 -0.3831 -0.18870001
-0.48570001 0.4677 0.1463
0.57489997 0.1831 -0.01991
-0.60530001 -0.58249998 -0.058499999
0.53500003 0.4677 0.1144
-0.43020001 -0.03497 -0.1408
0.60680002 -0.66900003 0.090460002
-0.7062 -0.52670002 -0.02916
-0.70660001 -0.62230003 0.1064
0.26390001 -0.62809998 0.018689999
-0.45379999 -0.66900003 0.018689999
-0.087010004 0.1831 -0.01991
0.064510003 -0.62809998 0.1303
0.4233 -0.66900003 -0.01321
-0.4698 0.50330001 0.042610001
-0.38209999 -0.0163 -0.01991
0.61470002 0.50330001 0.026660001
0.57480001 0.51810002 0.2291
-0.094980001 -0.61440003 -0.058499999
-0.54949999 0.4677 0.074500002
0.1044 -0.2475 -0.058499999
0.58279997 0.39039999 -0.019579999
-0.40599999 -0.41499999 -0.01925
0.66250002 -0.50269997 -0.019920001
0.60680002 -0.2157 -0.01991
0.60680002 0.215 -0.01991
0.47920001 -0.37509999 -0.01991
-0.2226 0.24690001 -0.01991
-0.68480003 0.3425 0.2101
0.33559999 -0.58249998 -0.01991
-0.2226 -0.57450002 -0.01991
0.68220001 -0.1997 0.09843
-0.1987 0.50379997 0.050579999
-0.66460001 -0.146 -0.1087
0.59079999 -0.66900003 0.01071
0.70359999 0.3346 0.074510001
0.1442 0.50330001 0.074510001
-0.7062 -0.3592 -0.01321
-0.094980001 0.27079999 -0.058499999
0.70359999 -0.064149998 0.1463
-0.19069999 0.023569999 -0.01991
0.54299998 -0.66900003 0.01071
-0.02321 -0.3353 -0.01991
0.33559999 0.1033 -0.01991
-0.53359997 -0.5187 -0.058499999
-0.59740001 -0.51069999 -0.01991
0.52700001 0.36649999 -0.01991
-0.50959998 -0.31130001 -0.058499999
-0.59740001 0.40630001 -0.01991
0.59079999 -0.3353 -0.058499999
0.70359999 -0.54259998 -0.045079999
0.61470002 -0.60640001 -0.058499999
-0.29429999 -0.28740001 -0.058499999
0.1283 -0.27149999 -0.058499999
0.39140001 -0.66900003 0.1463
-0.5176 0.39039999 -0.058499999
0.49509999 -0.28740001 -0.058499999
-0.1349 0.2947 -0.01991
-0.29429999 -0.2396 -0.01991
0.23989999 0.50330001 0.17020001
-0.18269999 0.13519999 -0.01991
-0.69190001 -0.43099999 -0.1488
0.2958 -0.66900003 0.1463
-0.3741 0.30270001 -0.01991
0.33559999 -0.4788 -0.058499999
0.1442 -0.1419 -0.19660001
0.1442 0.44620001 -0.058499999
0.35960001 -0.1917 -0.01991
-0.27039999 0.50330001 0.1224
-0.2385 0.1512 -0.058499999
-0.2146 -0.62809998 0.1064
0.2559 -0.32730001 -0.01991
0.1363 0.3186 -0.058499999
-0.36610001 -0.5187 -0.01991
-0.40599999 0.4677 0.2101
-0.58139998 -0.5187 -0.058499999
0.4154 0.1432 -0.01991
-0.26249999 0.4677 0.1064
0.21600001 -0.2236 -0.01991
0.208 0.2309 -0.01991
-0.50169998 -0.1997 -0.058499999
-0.6372 -0.31130001 -0.01991
-0.2066 0.32659999 -0.01991
0.59079999 -0.2077 -0.058499999
0.31169999 -0.43889999 -0.058499999
0.62269998 -0.66900003 0.1542
0.1841 -0.35120001 -0.01991
-0.58139998 -0.1512 -0.01754
-0.7062 -0.112 0.066529997
-0.07903 0.1113 -0.01991
0.70359999 -0.0801 0.058559999
-0.087010004 -0.37509999 -0.01991
-0.1189 -0.62779999 0.066540003
-0.42989999 0.50330001 -0.02121
0.008684 0.0076230001 -0.01991
0.36750001 0.4677 0.098420002
0.064489998 -0.04239 -0.1807
0.008684 -0.04022 -0.01991
0.70740002 0.4698 0.1144
0.000695 0.4677 0.074500002
0.1203 -0.1419 -0.1169
0.1044 -0.3432 -0.01991
-0.34220001 0.4677 0.098420002
-0.33419999 0.50379997 0.01867
0.48710001 -0.62809998 0.098439999
0.32769999 -0.62809998 0.098439999
-0.7062 0.3186 0.018689999
-0.58139998 0.5036 -0.02916
0.016650001 0.57380003 0.229
0.072480001 0.28670001 -0.058499999
0.072480001 0.2229 -0.01991
0.1841 0.50330001 0.082479998
0.4632 0.50330001 0.090460002
0.47119999 0.50330001 0.018689999
-0.03118 0.3585 -0.058499999
-0.68480003 -0.112 0.042610001
-0.43790001 0.039519999 -0.01991
-0.68480003 0.2149 0.042610001
-0.68480003 0.01559 0.19410001
0.23989999 -0.66900003 0.058559999
-0.05511 -0.52670002 -0.01991
-0.58139998 0.50330001 0.026660001
-0.68480003 -0.4788 0.058559999
0.63069999 -0.66900003 0.0027379999
0.64310002 0.063170001 -0.07102
-0.68480003 -0.32730001 0.058559999
0.44049999 -0.4795 -0.060529999
0.032600001 0.54189998 0.229
-0.071050003 -0.3193 -0.058499999
0.1682 -0.62809998 0.058570001
-0.0072650001 0.38240001 -0.01991
-0.28639999 -0.032249998 -0.01991
-0.7062 0.38240001 -0.0052370001
0.00070899999 -0.59039998 -0.01991
0.37549999 -0.66900003 0.034639999
-0.04713 -0.55849999 -0.058499999
0.3436 -0.62809998 0.074510001
-0.2066 0.047490001 -0.01991
-0.039159998 -0.62809998 0.1622
-0.4777 -0.62809998 0.050590001
-0.094980001 0.3346 -0.01991
0.40740001 0.50330001 0.034639999
0.65460002 0.50330001 0.050590001
0.70359999 0.1831 -0.02916
0.2798 0.087370001 -0.01991
0.5589 -0.02427 -0.01991
-0.2066 -0.66900003 -0.02118
0.1682 0.01541 -0.075460002
0.000695 0.4677 0.1223
-0.46180001 -0.4948 -0.01991
-0.68480003 -0.15979999 0.074500002
0.68220001 -0.0083330004 0.09843
0.68559998 -0.48679999 -0.1328
0.28780001 0.1592 -0.01974
-0.50169998 0.26280001 -0.05861
0.53500003 0.28670001 -0.01991
0.4154 -0.60640001 -0.058499999
-0.59740001 -0.3193 -0.058499999
-0.4219 -0.5984 -0.058499999
-0.45379999 0.39039999 -0.01991
0.27180001 0.31060001 -0.01991
-0.398 -0.62809998 0.1463
0.52700001 -0.30340001 -0.01991
0.64660001 -0.32730001 -0.01991
-0.59740001 0.2947 -0.058499999
0.24789999 0.35049999 -0.058499999
-0.398 -0.66900003 0.1224
0.36750001 -0.1419 -0.1488
-0.7062 -0.43889999 0.1383
-0.1269 0.3585 -0.01991
0.4632 0.4677 0.1622
-0.34220001 0.50330001 0.18610001
-0.7062 -0.35120001 0.21799999
0.68220001 0.2149 0.18610001
-0.7062 0.13519999 0.17820001
0.44729999 0.2229 -0.01991
-0.3741 0.207 -0.01991
0.61470002 -0.2476 -0.01991
-0.46180001 -0.3592 -0.058499999
0.3994 0.41429999 -0.058499999
0.37549999 -0.29539999 -0.01991
0.3197 -0.42300001 -0.01991
-0.4219 0.41429999 -0.058499999
0.2958 0.37439999 -0.01991
0.26390001 -0.29539999 -0.058499999
0.2958 -0.29539999 -0.058499999
0.22400001 -0.51069999 -0.01991
-0.3502 0.37439999 -0.058499999
0.40740001 0.42230001 -0.01991
0.208 0.4677 0.19410001
0.21600001 0.4677 0.1542
0.1442 0.42230001 -0.01991
0.47920001 0.36649999 -0.058499999
0.62269998 0.28670001 -0.01991
0.63069999 -0.55059999 -0.01991
-0.4937 0.50330001 0.20999999
0.56690001 0.1113 -0.01991
0.38350001 0.2309 -0.058499999
0.62269998 0.191 -0.01991
-0.56550002 0.42230001 -0.058499999
-0.33419999 -0.54259998 -0.01991
0.52700001 -0.66900003 0.1383
0.70359999 -0.37509999 0.21799999
0.59079999 -0.1758 -0.058499999
0.55089998 -0.3193 -0.058499999
0.208 0.070880003 -0.070950001
-0.54949999 -0.056109998 -0.019920001
0.0087050004 -0.042229999 -0.1807
-0.398 0.4677 0.098420002
-0.1109 0.4677 0.098420002
0.2798 -0.62779999 0.1781
0.00070899999 0.50330001 -0.0451
-0.079039998 0.5036 -0.06095
-0.191 -0.057349999 -0.2032
-0.66900003 -0.37509999 -0.019619999
-0.65609998 -0.1441 -0.2366
0.22400001 0.53390002 0.2321
0.68529999 -0.095880002 -0.2445
-0.3581 0.02335 -0.074809998
-0.4903 -0.037999999 -0.1443
0.70359999 -0.3831 0.1224
0.66250002 0.1512 -0.019920001
0.056529999 -0.62809998 0.018689999
-0.2545 0.46520001 0.0114
0.085780002 0.1586 -0.094350003
0.67049998 -0.02795 -0.1249
0.0964 0.1374 -0.062380001
-0.42989999 -0.033640001 -0.093160003
-0.103 0.51810002 0.2291
0.57489997 -0.6462 -0.044939999
-0.52560002 -0.1453 -0.01265
0.21600001 -0.097240001 -0.2246
-0.42919999 0.48640001 -0.07598
-0.2538 0.48640001 -0.07598
-0.38139999 -0.63270003 -0.05195
0.66259998 -0.070890002 -0.2647
0.64660001 0.50160003 -0.072319999
-0.3741 7.2000003e-05 -0.078000002
0.5589 0.01541 -0.075460002
0.1602 0.13160001 -0.099969998
0.42140001 -0.4316 -0.060660001
-0.0072679999 -0.66900003 0.17020001
0.048549999 0.46520001 0.0114
-0.094980001 -0.1512 -0.05951
-0.68959999 -0.1998 -0.2007
0.6785 -0.66900003 0.050579999
0.29570001 0.4677 0.0026420001
-0.46180001 0.4677 0.0026420001
-0.7062 0.087360002 0.042610001
0.60070002 0.65210003 0.097029999
0.47909999 -0.042229999 -0.1807
0.1123 0.4677 0.2334
-0.27039999 0.4677 0.2101
-0.7062 0.26280001 -0.037129998
-0.67690003 0.042180002 -0.01466
-0.61330003 -0.107 -0.2367
0.68220001 0.01559 0.05855
0.704 -0.096040003 0.098420002
0.3037 -0.1258 0.004133
0.704 -0.4549 0.17020001
0.024669999 -0.43000001 -0.063490003
0.2825 -0.1245 -0.26140001
-0.6771 -0.66900003 -0.1488
0.68220001 -0.55849999 0.09843
0.1469 0.5104 0.2344
0.68559998 -0.48679999 -0.076990001
-0.38999999 0.52590001 0.23199999
-0.15880001 -0.1419 -0.21250001
0.7033 -0.47350001 0.2357
0.64099997 0.1266 -0.079829998
-0.6846 -0.1918 0.098399997
-0.65100002 -0.5772 0.1516
0.70359999 -0.14390001 -0.02916
-0.1269 -0.1107 -0.26010001
0.3436 -0.01081 -0.082730003
0.50840002 -0.1345 -0.22920001
0.68300003 -0.54269999 -0.13699999
-0.69870001 -0.1203 -0.19660001
0.68220001 0.30270001 0.19410001
-0.7062 -0.1838 0.17020001
-0.68480003 0.1671 0.1224
0.70359999 0.36649999 0.17020001
-0.7062 0.26280001 0.20209999
0.68220001 -0.1838 -0.1363
0.70359999 -0.2396 0.2101
-0.7062 -0.57450002 0.090449996
-0.67079997 -0.191 -0.25330001
-0.68480003 -0.072120003 0.0028029999
0.70359999 -0.5187 0.09843
0.24789999 0.1374 -0.062380001
-0.68480003 -0.1279 0.17820001
-0.68480003 0.1831 0.2101
0.70359999 0.1591 0.082479998
0.68220001 -0.0083330004 0.2101
0.70359999 -0.41499999 -0.0052359998
0.68220001 -0.16779999 0.01071
-0.68480003 0.1193 0.074500002
0.70359999 -0.15979999 0.034639999
0.68220001 0.087360002 0.1144
-0.65429997 0.199 -0.067610003
0.68220001 -0.104 0.1223
0.70359999 0.39840001 0.026660001
-0.68480003 -0.15189999 0.034630001
-0.7062 -0.4948 0.026660001
-0.68480003 -0.37509999 0.1224
-0.7062 0.30270001 0.1303
0.70359999 -0.1758 0.1542
-0.68480003 -0.2396 0.1622
0.70359999 0.1751 0.1224
0.68220001 0.1033 0.19410001
0.70359999 -0.2316 0.17820001
0.68220001 0.3186 0.21799999
0.68220001 -0.27950001 0.1064
0.70359999 0.27869999 0.1463
0.70359999 0.30270001 0.042610001
-0.68480003 0.40630001 0.1064
0.68220001 -0.36719999 0.042610001
0.68220001 0.30270001 0.1064
0.68220001 -0.13590001 0.066529997
-0.7062 -0.54259998 0.17820001
-0.56550002 0.4553 0.031470001
0.70719999 -0.6322 -0.1488
-0.6771 0.50330001 0.0027409999
0.70120001 -0.66890001 0.1064
-0.46900001 0.6455 0.1053
-0.1163 0.12630001 -0.079329997
-0.67739999 -0.2309 -0.079269998
-0.16940001 0.1758 -0.089670002
0.061840001 0.1182 -0.069969997
0.62269998 0.44530001 0.01514
0.54549998 0.65200001 0.092859998
-0.01524 -0.081909999 0.0027409999
0.63059998 -0.62779999 0.1303
-0.70740002 -0.64630002 0.2101
-0.7062 -0.26350001 0.21799999
0.019309999 -0.1035 0.0022169999
0.44729999 -0.1419 -0.20460001
0.47920001 -0.62239999 -0.05844
0.65460002 -0.66900003 -0.20460001
0.4659 0.44049999 0.01578
-0.7062 -0.43889999 -0.02916
-0.42210001 -0.2158 -0.063510001
0.24259999 -0.1029 0.002567
-0.3107 -0.040819999 -0.1567
-0.0072650001 -0.078510001 -0.2217
-0.29370001 0.083120003 -0.069940001
-0.43790001 -0.1419 -0.21250001
-0.51959997 0.7252 0.1085
-0.4219 -0.077710003 -0.0050789998
-0.7062 0.031539999 -0.0451
0.6886 -0.35120001 -0.061489999
0.55089998 -0.1415 -0.0052459999
0.208 0.4677 -0.005109
-0.48159999 0.255 -0.20479999
-0.66360003 -0.1384 -0.01268
0.07045 -0.03528 -0.13339999
-0.1507 0.1772 -0.1208
0.016659999 -0.1312 0.002994
0.54830003 0.12819999 -0.085960001
-0.67690003 0.46309999 0.18610001
0.68409997 -0.34330001 -0.1017
-0.66369998 -0.50480002 -0.1573
0.6498 -0.42300001 -0.1328
-0.1109 -0.62809998 0.17020001
-0.3761 0.4614 0.01671
0.38350001 0.46520001 0.0114
-0.17470001 7.2000003e-05 -0.078000002
-0.68730003 -0.02837 -0.1088
-0.39559999 -0.3105 -0.063409999
0.4632 0.1234 -0.074079998
-0.4804 0.50520003 0.23710001
0.000703 0.60570002 0.2321
-0.36610001 -0.077710003 -0.005076
-0.1083 -0.66670001 -0.042089999
0.053210001 -0.2263 -0.0612
0.29570001 0.49329999 0.2439
0.68220001 -0.36719999 0.1622
0.40740001 -0.5302 -0.06267
-0.32620001 -0.15989999 -0.058499999
0.35159999 -0.15989999 -0.058499999
0.45519999 0.456 -0.017550001
0.42590001 -0.2289 -0.06236
0.704 0.047490001 0.042569999
0.704 0.1751 0.02665
-0.68769997 0.207 0.2362
-0.70420003 0.2017 -0.05565
-0.70420003 -0.3964 -0.05565
0.51679999 0.63069999 0.1073
-0.62129998 0.1111 -0.067950003
0.43130001 -0.081890002 0.0027419999
0.70370001 -0.15979999 0.2321
0.37020001 0.13330001 -0.1053
0.6706 0.454 -0.058460001
-0.6846 -0.3831 0.17820001
0.050110001 -0.034779999 -0.1557
-0.62919998 0.3425 -0.058499999
-0.065750003 0.12800001 -0.085299999
-0.30230001 -0.61589998 -0.01754
-0.25709999 0.4612 -0.06202
0.68220001 0.37439999 0.21799999
0.7033 -0.050859999 0.23559999
0.23199999 -0.03111 -0.087339997
0.61470002 -0.1258 0.004133
0.2798 -0.64020002 -0.044599999
0.32769999 -0.145 -0.01269
-0.29260001 -0.53030002 -0.06199
0.68220001 -0.39109999 0.018680001
0.68220001 -0.032260001 0.1303
-0.68480003 -0.41499999 0.1064
-0.7062 -0.05618 0.17820001
-0.68480003 -0.1997 0.226
-0.68480003 -0.4948 0.090449996
-0.68480003 0.03951 0.2101
0.68220001 -0.27149999 0.20209999
-0.7062 -0.47080001 0.1224
-0.1275 -0.63230002 0.19069999
0.68019998 -0.20469999 -0.19769999
0.68220001 -0.43099999 0.05855
0.68220001 -0.34330001 0.09843
-0.7062 -0.44690001 0.082479998
-0.68480003 0.3425 0.066529997
0.68220001 -0.25549999 0.042610001
-0.7062 0.27079999 0.042610001
0.70359999 -0.28740001 0.050579999
-0.68480003 0.31060001 0.034630001
-0.7062 -0.32730001 0.042610001
0.1124 7.2000003e-05 -0.078000002
0.081119999 0.4562 0.01881
0.23199999 -0.1318 -0.24439999
-0.68480003 0.39039999 0.018680001
0.70359999 -0.35120001 0.17020001
0.68220001 0.32659999 0.01071
0.70359999 -0.0482 0.17020001
0.68220001 -0.064149998 0.1622
-0.68480003 0.2229 0.19410001
-0.68480003 0.1432 0.19410001
-0.7062 0.42230001 0.17820001
-0.68480003 -0.42300001 0.1383
0.68220001 0.42230001 0.1463
-0.2412 -0.1288 -0.2604
-0.15880001 -0.077710003 -0.0050789998
0.6498 -0.25549999 -0.22059999
-0.03119 -0.0482 -0.01991
0.70359999 -0.2316 -0.0052359998
0.61470002 -0.03396 -0.093110003
-0.64579999 -0.029340001 -0.24779999
0.68409997 -0.39109999 -0.1017
0.6706 -0.60799998 -0.1806
-0.46110001 0.49860001 -0.074900001
-0.39269999 0.49739999 0.24349999
0.43130001 -0.068829998 -0.20990001
-0.03119 0.46810001 0.23810001
0.47920001 0.50330001 0.20999999
0.1858 0.6045 0.2324
-0.6911 -0.27219999 -0.1918
-0.67690003 -0.34060001 -0.01466
-0.17470001 0.44279999 0.02627
0.66259998 -0.66900003 0.2101
0.6717 0.27079999 -0.01754
-0.6473 -0.026000001 -0.1566
-0.48570001 -0.66900003 0.17820001
-0.2545 -0.025210001 -0.084140003
-0.56279999 -0.6232 -0.01263
0.67049998 0.37419999 -0.067460001
-0.3581 -0.4788 -0.058499999
0.1044 -0.1314 -0.2366
-0.6027 0.13330001 -0.1053
-0.53469998 -0.040240001 -0.1567
0.54290003 0.50580001 0.219
-0.58139998 -0.03362 -0.093110003
-0.29429999 0.1348 -0.068389997
0.68379998 0.1432 0.2352
-0.34150001 0.083120003 -0.069940001
0.42340001 0.44620001 -0.058499999
0.02462 0.4677 -0.005109
0.63069999 0.4932 0.2439
-0.1109 0.44839999 0.028759999
-0.47780001 -0.1358 0.0024049999
-0.2784 -0.1512 -0.01754
-0.087010004 0.4716 0.2404
-0.21529999 -0.61510003 0.049249999
-0.063100003 0.15970001 -0.1089
0.6778 -0.1506 -0.09189
-0.7062 -0.29539999 0.0027369999
-0.3502 0.13950001 -0.093850002
0.1682 0.49329999 0.2439
0.66250002 0.079389997 -0.019920001
-0.66430002 -0.4278 -0.097060002
-0.2219 0.4562 0.01881
0.4192 -0.30340001 -0.062700003
0.3994 -0.1362 0.002294
0.072480001 0.4382 -0.01991
-0.62819999 -0.0053309998 -0.08004
-0.68910003 -0.49090001 -0.16
0.040580001 -0.66180003 0.19220001
0.4386 -0.03461 -0.1328
0.6534 -0.3134 -0.2362
-0.30230001 0.53390002 0.2321
0.50309998 -0.056109998 -0.019920001
0.66259998 -0.64630002 -0.237
-0.1194 -0.03695 -0.16069999
0.68370003 -0.60640001 0.23549999
0.040580001 0.12980001 -0.092589997
-0.0046060001 0.1265 -0.079949997
-0.47409999 0.2096 -0.2076
0.1708 -0.072889999 -0.01265
-0.7105 0.48800001 0.22
0.61150002 0.62739998 0.08326
-0.071039997 0.1576 -0.082649998
-0.087930001 -0.4531 -0.059870001
0.70550001 0.46169999 0.18610001
0.70370001 0.2309 0.2321
-0.68489999 0.14049999 0.23559999
0.080449998 -0.15989999 -0.019920001
0.1283 0.4648 0.04228
0.0964 -0.1837 -0.058499999
-0.023220001 -0.15090001 -0.01756
0.1761 0.4677 0.074500002
0.33559999 -0.04417 -0.2094
0.52700001 0.52590001 0.229
0.7001 0.27079999 0.23630001
-0.7008 -0.58249998 -0.1009
0.53420001 0.50950003 0.1137
-0.51050001 0.63 0.092210002
0.3044 -0.63260001 -0.05164
0.25319999 -0.07846 0.000268
-0.68300003 -0.23899999 -0.2475
0.67839998 -0.1371 -0.0076759998
-0.5377 -0.040109999 -0.1118
0.70359999 -0.27149999 -0.037129998
0.68000001 -0.40529999 -0.1244
-0.44580001 -0.063419998 -0.2052
0.61739999 0.13500001 -0.075240001
-0.48840001 -0.07846 0.00025000001
0.68260002 0.199 -0.065779999
0.26390001 -0.15989999 -0.058499999
-0.31830001 -0.1074 -0.2516
-0.31029999 0.46520001 0.0114
0.63859999 0.43830001 -0.058320001
0.1389 -0.1036 0.0026479999
0.51059997 0.22490001 -0.2124
-0.53359997 -0.6462 -0.044939999
0.08044 0.46669999 0.05015
0.1044 0.1111 -0.067950003
0.59079999 0.007613 -0.075709999
-0.70609999 -0.16779999 0.23199999
0.51899999 0.46669999 0.05015
-0.38999999 -0.50279999 -0.05847
-0.70740002 -0.64630002 0.17820001
-0.44589999 -0.43889999 -0.01925
-0.6821 -0.5668 0.1622
0.1363 -0.50269997 -0.01991
0.42340001 0.26280001 -0.058499999
0.47920001 -0.52670002 -0.01991
0.35949999 -0.1419 -0.1089
0.35949999 0.4677 0.1622
0.33559999 0.36649999 -0.01991
-0.1349 -0.39910001 -0.01991
-0.2226 -0.61440003 -0.058499999
0.23199999 0.1591 -0.058499999
0.1442 0.2309 -0.01991
0.1602 0.4677 0.1542
0.1442 -0.1419 -0.1488
-0.7062 0.12720001 0.1542
0.3037 -0.1917 -0.01991
-0.7062 0.4303 0.1383
-0.50959998 -0.1419 -0.1009
0.6498 -0.53460002 -0.1169
0.208 -0.31130001 -0.01991
-0.1189 -0.55059999 -0.058499999
0.70359999 0.3425 0.1622
0.2798 0.31060001 -0.058499999
0.3037 -0.2475 -0.058499999
0.48710001 0.26280001 -0.01991
-0.3502 0.41429999 -0.01991
0.70709997 -0.65429997 -0.1009
0.70359999 0.30270001 0.074510001
0.47920001 -0.62809998 0.02667
-0.68480003 -0.28740001 0.042610001
-0.59740001 -0.62809998 0.082489997
0.4233 0.0156 -0.01991
0.51899999 0.50330001 0.0027409999
0.2001 0.0156 -0.01991
0.048549999 -0.3353 -0.01991
-0.414 0.01541 -0.075460002
-0.67680001 -0.57209998 0.02932
-0.46169999 -0.55860001 -0.059300002
-0.50319999 0.57349998 0.1011
0.1841 0.1577 -0.08354
-0.648 -0.078730002 -0.00040799999
-0.071060002 0.58969998 0.2321
-0.4698 -0.30340001 -0.058499999
0.39140001 0.37439999 -0.01991
0.2638 0.4677 0.1144
-0.2305 0.50330001 0.1543
-0.19859999 -0.43099999 -0.01991
-0.7062 -0.40700001 0.1542
-0.50959998 -0.5266 -0.058499999
-0.50169998 -0.27149999 -0.058499999
0.4154 0.27079999 -0.01991
-0.1265 -0.43529999 -0.062490001
-0.70730001 0.46990001 0.018689999
-0.07903 0.063440003 -0.01991
0.68559998 -0.4549 -0.092940003
-0.1428 -0.62809998 0.1224
-0.68480003 -0.072130002 0.1224
-0.29429999 -0.62779999 0.02664
0.088430002 0.095339999 -0.01991
-0.64899999 -0.60589999 -0.004458
0.080449998 -0.66900003 0.09843
-0.6613 0.1192 -0.068209998
-0.2066 -0.5029 -0.058460001
0.43920001 -0.033780001 -0.1009
-0.60530001 -0.66900003 0.066529997
0.70359999 -0.54259998 0.050579999
0.088430002 -0.1917 -0.01991
-0.68480003 -0.088069998 0.1622
-0.063079998 0.50330001 0.1543
0.63069999 0.50330001 -0.01321
-0.16680001 -0.66900003 0.074510001
-0.047139999 0.24690001 -0.01991
-0.7062 -0.096050002 0.1463
0.61470002 0.087370001 -0.01991
-0.03119 0.50330001 0.01072
0.37549999 0.50330001 -0.005233
-0.7062 -0.040229999 0.0027369999
0.024630001 -0.50269997 -0.01991
0.00070899999 0.199 -0.01991
0.51899999 0.023569999 -0.01991
-0.02321 -0.4549 -0.058499999
-0.68480003 -0.52670002 0.034630001
0.70359999 -0.26350001 0.09843
0.51109999 -0.66900003 0.034639999
0.45519999 0.50330001 -0.037129998
-0.02321 0.32659999 -0.058499999
-0.2784 -0.66900003 0.050579999
0.048549999 -0.56650001 -0.01991
0.040580001 0.1113 -0.01991
0.68220001 0.2309 0.1064
-0.68480003 0.2229 0.1064
-0.086999997 -0.62809998 0.1543
0.4632 0.063440003 -0.01991
-0.16680001 -0.66900003 0.026660001
-0.2465 -0.66900003 0.042610001
0.056529999 0.50330001 0.20209999
0.3037 0.50330001 0.034639999
0.080449998 -0.47080001 -0.01991
0.68220001 -0.3114 0.042610001
-0.1189 0.50330001 0.026660001
-0.7062 -0.0083299996 0.018689999
-0.047139999 -0.66900003 0.058559999
-0.7062 -0.096050002 0.1064
0.040580001 0.031550001 -0.01991
-0.071060002 -0.000351 -0.01991
-0.27039999 0.079389997 -0.01991
-0.68480003 0.055459999 0.01071
0.70359999 -0.088069998 0.034639999
0.70359999 0.0076199998 -0.037129998
-0.69169998 -0.33579999 -0.17399999
0.1841 -0.62809998 0.0027610001
-0.094980001 0.50330001 0.050560001
-0.103 -0.51069999 -0.058499999
